-4.795681295100464453e-02 -4.657860530050553782e-01 2.044133672691705872e-02
-6.018950512453077883e-02 -5.145872373690464352e-01 2.256096795355205797e-02
1.218986705192999856e-02 3.814539094324928548e-01 3.664614414527354036e-01
-5.819456102866624875e-02 -2.612083852463375488e-01 -6.956110923757333753e-01
8.393064330946701027e-03 3.705783997989103851e-01 3.640154587746466941e-01
-8.852991913506708110e-02 -6.451929786637540243e-01 6.308031384598025704e-02
-1.045992103089539299e-01 -6.405248042269546804e-01 4.662221427650328071e-02
-8.970139987565833861e-02 -6.360483408132443506e-01 5.623571945454998444e-02
-8.510912824384858633e-02 -6.274843966591351352e-01 5.333367914336405169e-02
-8.460691170560069585e-02 -6.166831783430312131e-01 4.734612531077173059e-02
-7.867156816542061892e-02 -6.095898329683347994e-01 4.698060237355891622e-02
-8.005491125461702828e-02 -5.985368716696169988e-01 3.982301593055699585e-02
-7.850129781528017436e-02 -5.866996492282944287e-01 3.472090227669901580e-02
-7.643183693505073428e-02 -5.978521061691293159e-01 4.211644941895457267e-02
-7.069878618947958437e-02 -5.906128088681746879e-01 4.250512611304968491e-02
-6.337646556439469059e-02 -5.409573017154997165e-01 2.873646635283081535e-02
-6.560142636781723935e-02 -5.808554845604001482e-01 4.187377520961014371e-02
-4.412807901460421428e-02 6.042788840176871457e-01 5.333420127652760412e-01
-2.328596812449299641e-02 5.302408670613757424e-01 6.720318669103646503e-01
-5.017310832260198084e-02 -5.159793124301641498e-01 2.981547061134106474e-02
-4.640151117328084746e-02 -4.727389498790517397e-01 2.244328638097023432e-02
-3.534013592365546630e-02 5.833073550972127652e-01 6.457750976614367033e-01
-4.240988515181927376e-02 5.207966831037240674e-01 6.342877919181774127e-01
-7.686209785149186735e-02 -2.933706263410810200e-01 -6.846709284178540411e-01
-5.924425760303770466e-02 6.307717327641895189e-01 3.797283748298797001e-01
-5.458263404965954524e-02 5.423185686128367822e-01 6.000285056231433600e-01
-7.503151154405685030e-02 -2.589305367732565033e-01 -6.734857205963955540e-01
-7.571653938617733948e-02 -2.589349026867719950e-01 -6.725190438486221556e-01
-7.736828205587907570e-02 -2.821671978270667847e-01 -6.777859564422280547e-01
-5.621223990912363466e-02 5.431469574249117027e-01 3.928863412597614624e-01
-9.671136713219964653e-02 -1.699675535764933465e-01 -6.242110422499060896e-01
-4.309212489001053303e-02 5.369050912266866149e-01 5.601642936043205179e-01
-4.964306087008668600e-02 5.452707369535523263e-01 5.461520173338502149e-01
-5.473413759724977956e-02 4.974691244300020743e-01 3.995177217383054646e-01
-1.031538194470028175e-01 -1.371832846242352355e-01 -6.192588153788681771e-01
-1.267376174977666581e-01 -9.749023835084340284e-02 -5.927375184518000051e-01
-2.637697273717670016e-02 6.095935410517395736e-01 5.604842264858524992e-01
-1.158929403824195403e-01 -6.540733721151227587e-02 -6.109871075072665914e-01
-1.221088173367892715e-01 -6.384031017689495435e-02 -6.035312893677713397e-01
-1.339015599028207937e-01 -5.791283930720275003e-02 -5.898129355289687403e-01
-1.045757059409559986e-01 -7.848724133645880452e-02 -6.212046947844876987e-01
-4.581263086720900601e-02 2.634657464705678631e-01 4.645976136477808494e-01
-9.950046204208218281e-02 -7.318572339400317150e-02 -6.243657224284161478e-01
-2.277223304595897210e-02 1.584131930607281802e-01 3.956638104685342161e-01
-9.294795562288482582e-02 -5.100391778235664059e-02 -6.228785230982653021e-01
-1.006556150584710652e-01 -3.185669662939484559e-02 -6.163558313247450293e-01
-6.493084676895925778e-02 5.546762879588502670e-01 4.032178115367176519e-01
-1.066147396922109691e-01 -4.122548962852812249e-02 -6.148657502881819115e-01
-3.639576805014638206e-02 1.539932052686903974e-01 3.765717300703933512e-01
-1.382309027103356680e-01 5.590289830575847357e-02 -5.839858260862165196e-01
-5.655560362604016011e-02 4.956287305858651515e-01 4.495717786813463457e-01
-1.263839831553207893e-01 2.138494296036282105e-02 -5.950397083945372367e-01
-5.425253490341866436e-02 4.402676847839223639e-01 4.059681995723517511e-01
-1.182992368095642788e-01 2.775245670570965911e-02 -6.011330345988289414e-01
-1.060017822782987201e-01 -4.144443907985680825e-03 -6.104681413227681652e-01
-7.880044196601676543e-02 -9.423866469414382552e-02 -6.379812180044136527e-01
-8.539947104207110118e-02 -8.805527301561832942e-02 -6.338458284633070594e-01
-6.432421125890486202e-02 3.298218576687754755e-01 4.478986325331595908e-01
-8.296327133913418417e-02 -1.224472261529678946e-01 -6.435294643270524917e-01
-8.320086010725848136e-02 -1.144227772067670235e-01 -6.411811515314147503e-01
-9.240236848755423171e-02 -1.138069625001137120e-01 -6.359205793504364435e-01
-1.038616946980059907e-01 -9.758629372427483906e-02 -6.243480265929467476e-01
-6.042568303290383330e-02 3.018359547030602386e-01 3.636546862469745012e-01
-6.805074332241618784e-02 -1.745708882256563621e-01 -6.657073023871890038e-01
-6.935069779034706838e-02 -1.688348978008491763e-01 -6.632454300364640787e-01
-6.225440350222211094e-02 -1.972474681746187453e-01 -6.757177807611215448e-01
-6.068769558689048743e-02 -2.109525493479365577e-01 -6.804471544340777722e-01
-6.358012397838247454e-02 -2.197690988105971410e-01 -6.814073064336962915e-01
-1.335058099513304342e-01 -9.381608379469082160e-02 -5.838598599870502559e-01
-1.190943053408224928e-01 -1.286340814151294976e-01 -5.942903577983067454e-01
-1.143747592678244079e-01 -1.336900646787220204e-01 -6.005457551412087813e-01
-5.054840454655963600e-02 5.378827299426516273e-01 5.280806113794529466e-01
-1.658931427157647187e-01 1.927544766488951677e-01 -3.207605276055627841e-01
-1.088245762389380561e-01 -1.626741372440583810e-01 -6.053813526484637109e-01
-9.090180219943952422e-02 -2.158501629710493919e-01 -6.372129001775026502e-01
-1.721479499106022271e-01 2.252575772170825052e-01 -3.065211096533380086e-01
-1.059448629330609626e-01 -1.700748146345276435e-01 -6.106091873085839339e-01
-5.223989997929337492e-02 -5.921843920435588826e-01 -6.671383671599748766e-01
-7.131468564935961041e-02 -2.379429595922337715e-01 -6.729794019853572173e-01
-7.665284005788076949e-02 5.694949378491815928e-01 5.057394525041710720e-01
-4.141802015136666903e-02 -5.685855951559105614e-01 -6.566069675048190613e-01
-4.084497890386405011e-02 -5.671222363589097926e-01 -6.549793797312195576e-01
-7.395235900135048446e-02 -2.158418250188543219e-01 -6.653181255281913620e-01
-8.075339484608012874e-02 -2.013912003702326703e-01 -6.534311987198335725e-01
-7.320330145858162940e-02 -6.873425419213341492e-01 -5.865762989863660959e-01
-5.448857619993607848e-02 -2.543283810298980763e-01 -6.979960607964420527e-01
-8.076087808862983386e-02 -1.794398727452608533e-01 -6.545402704839817787e-01
-8.040850931790186062e-02 -1.815520702809380604e-01 -6.550531731391440182e-01
-7.655287061378673874e-02 -6.275074780088736315e-01 -6.056678192288620366e-01
-9.100851003423274244e-02 -1.506237176311186476e-01 -6.389808515380154263e-01
-9.214773523337570216e-02 -1.622735079288945004e-01 -6.326206007632400041e-01
-4.684528742493179743e-02 5.251491853137075783e-01 3.778845372761403532e-01
-6.196851881909799797e-02 6.126254995395792324e-01 3.830842367403183291e-01
-6.458476806119917146e-02 -1.253107067796064289e-01 -6.501537853098238173e-01
-1.842612157742404833e-01 1.241660386869583854e-01 -4.244877469609452114e-01
-4.164292415432337136e-02 5.143199611332937016e-01 3.721455791889873299e-01
-7.847854111822148704e-02 5.768364188533152692e-01 4.982600760162471665e-01
-7.995656262064275432e-02 5.690125363586959750e-01 4.959695514068011568e-01
-1.752859513033020594e-02 6.187008710877008877e-01 5.904283663555507378e-01
-4.908243958307797333e-02 -2.576958144565364428e-01 -7.018250775335762581e-01
-4.531374957760608835e-02 -1.388957571290032333e-01 -6.550481748258623060e-01
-5.221672009699980521e-02 -2.490462912975877630e-01 -6.980345443944160344e-01
-5.372440885126060495e-02 -2.281255533678743508e-01 -6.891721123311288499e-01
-6.883540340250940415e-02 5.138684266845580106e-01 4.924088596255696837e-01
-3.628228647901979298e-02 -6.314841264369979168e-01 5.523523598443699778e-02
-7.315666323128985904e-02 5.354769472061622348e-01 5.042676954390199473e-01
-7.659336857889054162e-02 5.494981817491693121e-01 5.036859842792557052e-01
-7.312158223757472819e-02 5.475599149762624407e-01 5.099309341714772792e-01
-7.026498983588597147e-02 5.106998509760929394e-01 4.454634774660492513e-01
-7.571283516418855775e-02 5.235770462454513163e-01 4.451795896287971122e-01
-3.885962870221266324e-02 -1.450783277412899253e-01 4.847635141651842478e-02
-1.883515691118690660e-01 1.876100304675210051e-01 -4.507173793372917237e-01
-8.311161980896542012e-02 5.560461556411133710e-01 4.638455910238693525e-01
-1.878911512183679688e-01 1.854029100945798481e-01 -4.556532606611159997e-01
-8.325279202075955287e-02 5.610052735208694852e-01 4.670088432632973907e-01
-8.088203965869411594e-02 5.384960416813416861e-01 4.788519119488856002e-01
-4.436637855516172707e-02 -1.252889358882914028e-01 2.531468694183873144e-02
-7.933495923892031065e-02 5.307473581445347754e-01 4.554229668674153464e-01
-8.131461176841266181e-02 5.385344839169462494e-01 4.671281109981970658e-01
-6.294608670289991714e-02 -1.187840854901884569e-01 4.228059572634002006e-03
-5.536345951876915639e-02 4.937541092174029256e-01 4.666591006001665209e-01
-1.275815756563960721e-02 -4.358161465856493777e-01 -1.910687379712424847e-02
-8.298644630903169450e-02 5.645731890006178144e-01 4.433392486806501664e-01
-2.742028574811233854e-02 -5.248638464247901148e-01 -2.410692189119823404e-03
-2.658457022299971079e-02 -5.274991595261708799e-01 -3.649636968333863987e-06
-1.287205055412884991e-02 5.792230107645862658e-01 6.617597733115492264e-01
-2.116977934862653010e-02 5.616093804581727689e-01 6.622775093443780126e-01
-8.362357502650651087e-02 5.720549950870362776e-01 4.492378129002298492e-01
-1.726758986410805718e-01 2.231965440101815190e-01 -4.918667409975472360e-01
-1.725791524591447079e-01 2.233446178772929280e-01 -4.920600159927288608e-01
-4.010848549800709317e-02 5.488851326905045402e-01 6.545357572639269872e-01
-2.392968103457321360e-02 5.232450228837896011e-01 6.757380656670097796e-01
-1.873771690934399881e-01 1.478205246658089167e-01 -4.697576483307077666e-01
-6.043995603614927409e-02 -4.015309130704959872e-01 2.512506374846477583e-02
-3.132417389071413816e-02 5.663257802179422207e-01 6.547242796065853021e-01
-6.782491374274834950e-02 -2.462998067863740592e-01 5.823568830276822095e-02
-4.524929650378479995e-02 5.810918191535434651e-01 6.344286541385422140e-01
-2.504262664228857141e-02 5.725119778069573950e-01 6.557600495997946144e-01
-3.430140032703787867e-02 5.833149547211783359e-01 6.468164966194444032e-01
-6.295746542880736873e-02 -1.794559555498278502e-01 7.962369566569643675e-02
-3.680253579384428625e-02 5.745087155231274334e-01 6.478340900369294886e-01
-7.982663325575109492e-02 -1.611659532505851367e-01 8.840059791391327582e-02
-2.375739173035819676e-02 5.152845458960353398e-01 6.720835383944060437e-01
-1.760278251495166479e-01 1.358893161668721650e-01 -5.155869692601942056e-01
-3.244394478811662985e-02 5.214251160432288312e-01 6.552156166492589806e-01
-1.796734687064943659e-01 1.052829672889810803e-01 -4.932408220361762519e-01
-1.020797087408133463e-01 -1.881633284232429038e-01 7.014645838367569719e-02
-1.738410776018171067e-01 1.082425851318367382e-01 -5.189788913833525141e-01
-6.456430123949145894e-02 -3.269637458816340714e-01 2.864288999744032949e-02
-1.729762264256210769e-01 1.090715404435430025e-01 -5.224053076149153263e-01
-7.942799619058783789e-02 6.208791950762116985e-01 3.402323886429611810e-01
-9.446415816254292996e-02 6.329081901315929404e-01 3.239152194277672425e-01
-6.527316956485681998e-02 2.799735764029875340e-01 3.407268839221475609e-01
-8.066245243812139587e-02 6.163186527247714874e-01 3.615097928284725648e-01
-6.858814109627782429e-02 6.156487157240828623e-01 3.671427611078238451e-01
-3.115067487687519718e-02 5.799368019439063993e-01 3.529175183553311390e-01
-3.359874338172373631e-02 5.668088004802174229e-01 3.580740764930190889e-01
-1.724898951095471256e-01 3.929679824763932655e-02 -5.117808284104161665e-01
-5.161762278297277878e-02 5.855187673528001735e-01 3.765530998547245156e-01
-7.748289523528949230e-02 1.860309141571078462e-01 3.212832360585375913e-01
-1.720535741930789564e-01 4.587619448530209226e-02 -5.164641002112942969e-01
-7.597232410487442245e-02 2.422001785422207842e-01 3.602128601005024633e-01
-5.961018494143456581e-02 5.379389662855774690e-01 4.077361076439156573e-01
-7.660448263409858072e-02 2.493057899128805766e-01 3.551077572967699658e-01
-3.929238183550266134e-02 5.387502400805633807e-01 3.683436085727591625e-01
-3.530196591866882616e-02 5.481991730747748370e-01 3.636046632739188267e-01
-3.680577890289653958e-02 5.269377476336729593e-01 3.671996082781328052e-01
-4.812560543637114246e-02 5.482067087121875737e-01 3.778888336518416713e-01
-6.652631864907804227e-02 3.021517874336921983e-01 4.334179523775030241e-01
-1.747246348611794509e-01 1.427508743482236789e-02 -4.734357364859150819e-01
-1.775743606592866675e-01 6.952340599374255692e-02 -4.856419052729498698e-01
-1.770283257746385897e-01 5.638758019908461649e-02 -4.816090400985976183e-01
-5.034980035241577723e-02 2.339097167955900836e-01 4.362538900738701653e-01
-1.775422998708403866e-01 5.213503027162005865e-02 -4.732758953887562514e-01
-5.313831730932688791e-02 5.219937428810971225e-01 3.883606347071348885e-01
-4.775303353145404772e-02 2.338953869351715897e-01 4.410683773513825456e-01
-1.777941194528538382e-01 6.229130545351140025e-02 -4.783663005711815130e-01
-6.585622939691485045e-02 3.029529569734827343e-01 4.372525904698637556e-01
-1.782325441053927984e-01 6.265790055694522853e-02 -4.544851681278658795e-01
-5.778230536522595967e-02 5.201211040074600334e-01 4.065778441937063503e-01
-5.223096760031470387e-02 5.293877746227197978e-01 3.858551584241188825e-01
-3.590873841547375517e-02 5.041854405868384514e-01 3.680900858580570256e-01
-5.486278508870533199e-02 5.202528795278920093e-01 3.928267190892905103e-01
-3.096116696873223162e-02 4.705505154077519459e-01 3.685666923989744936e-01
-4.785760151436736776e-02 4.911684700784813007e-01 3.831142588728800313e-01
-1.841813183819175914e-01 1.025223609037874822e-01 -4.571589679622303226e-01
-4.593072156122662147e-02 4.703987133164554413e-01 3.839500004755693197e-01
-3.971235617437506721e-02 4.665240501824997610e-01 3.761490537845919024e-01
-7.838730262431888030e-02 1.608576338112375770e-01 2.837166102733880702e-01
-4.968907471863401315e-02 4.871564212523166182e-01 3.872266278540849038e-01
-5.270205259417738014e-02 4.923779795190968422e-01 3.938056343960343320e-01
-4.985423683474109191e-02 1.323322351099562866e-01 3.254162535883654561e-01
-1.846884334233807601e-01 1.118903001082271753e-01 -4.381398747878977318e-01
-1.824164943082489942e-01 1.016616128603307634e-01 -4.369500770388232702e-01
-5.027262088023422976e-02 4.524017528411595768e-01 3.957971316955796182e-01
-3.545720076560450462e-02 1.363444934354345051e-01 3.542105767482207623e-01
-2.612771157144236356e-02 1.307082561998029191e-01 3.547423876878262883e-01
-1.077618128666980868e-02 7.979407017889600384e-02 2.772037714192223667e-01
-5.722176624336916539e-02 4.866544994434417459e-01 4.267082955228389540e-01
-1.617933804518258412e-01 1.333989091665559457e-01 -5.481129791663639228e-01
-5.506186284069462811e-02 4.792876823146153820e-01 4.481653534873956124e-01
-1.628365247766810076e-01 1.355175290330195292e-01 -5.462575246018491759e-01
-5.170791320035278416e-02 7.464240760922208340e-02 2.314078209056084079e-01
-1.030089128219584677e-01 1.325827792447781261e-01 2.297917804707447498e-01
-4.535804000443521833e-02 4.296504032057295586e-01 4.777935044478403004e-01
4.685615990882494031e-02 4.812803109604025797e-01 -9.312530021790046963e-02
-4.771244824638541659e-02 4.164063262963136891e-01 4.769444366279620429e-01
-4.178674408144077146e-02 3.550555756633029802e-01 4.904337666148061436e-01
-4.829270596596403620e-02 3.480571768163646107e-01 4.827731169952634849e-01
-5.052500145898034672e-02 3.632627262872769602e-01 4.795243285048228499e-01
-5.383680537470725974e-02 3.628717424375522693e-01 4.744880231900309164e-01
-1.684700568057865555e-01 2.237301641155777787e-01 7.705189659076602804e-02
-1.657942307936413617e-01 2.251086233057930375e-01 7.028641337174272585e-02
-5.624750973065764659e-02 3.338582464539833206e-01 4.690052775715727873e-01
-5.757501709305910820e-02 3.195993742610089283e-01 4.645977130809681999e-01
-5.917363846200781458e-02 3.213504839797711732e-01 4.610547297761241614e-01
-4.667965687225186094e-02 2.839287601786769644e-01 4.714222042387705147e-01
7.780373846678487193e-02 4.052410048024388534e-01 -4.002884430199057930e-02
8.557769023684713705e-02 3.974004377843348701e-01 -3.860201940463012238e-02
7.416615556652436658e-02 4.064126609072166718e-01 -3.389709581937572214e-02
-1.457649816755215155e-01 2.671341882135747636e-01 6.257461790048840511e-02
-1.336947300992399612e-01 2.963473113228092815e-01 6.291852609041539979e-02
-5.530247238146129840e-02 3.068945165608978898e-01 4.671780761908788104e-01
-6.196305785314067810e-02 3.090377599277137621e-01 4.515984806533545615e-01
-5.883329076825542792e-02 2.964140736145916555e-01 4.544252260807343236e-01
-5.633720135470275669e-02 2.989717160688278863e-01 4.618825075053882290e-01
-4.399760925718900623e-02 2.672290332783399114e-01 4.686711311325419405e-01
-1.700740279253421805e-01 2.300885673531774256e-01 9.971126075803149469e-02
-6.084523843849254376e-02 -3.474627408055017685e-01 2.170940559712806334e-02
-3.312984284293626902e-02 2.253435493291454095e-01 4.540606209424336015e-01
-3.646162286185519741e-02 2.256130877564954673e-01 4.505574914213134052e-01
-4.006075509791744149e-02 2.396956541100951910e-01 4.559782018889451116e-01
-9.821207603094278538e-02 -2.495167022487146113e-01 3.268530477326722639e-02
-2.848136102456033658e-02 1.988795929024412545e-01 4.351715774766323763e-01
-2.598662354348668310e-02 2.074197635327987288e-01 4.459227468243411319e-01
-1.275939466327831173e-01 -1.572583068846220011e-01 5.797370944219745054e-02
-1.268027003926213980e-01 -1.628184513432280600e-01 5.489231463576151049e-02
9.173874812638375953e-02 4.172698132285205808e-01 -8.236017431083300644e-02
1.071712972752460746e-01 4.230418950309937642e-01 -1.230044918774716722e-01
-4.064494344573024026e-02 2.038083757098811954e-01 4.260070190501816234e-01
-3.824122839896342690e-02 1.939297729590733765e-01 4.194943440003323643e-01
-1.237675772948068909e-01 -9.881801423965452802e-02 9.592701458281832627e-02
-1.954228315835134996e-02 1.971142537713470311e-01 4.405665296190018343e-01
1.157461505577231514e-01 4.070232123990534800e-01 -1.234528304387707554e-01
-1.437654077404375286e-02 1.401928583352976543e-01 3.773643593757937120e-01
-1.691396244662033213e-02 1.611538656256032709e-01 4.037239359230758162e-01
-1.027369796993607698e-01 1.428150538692236557e-02 1.593931905588178988e-01
-1.187183049445214161e-01 -1.826296784716343810e-02 1.215194968257119201e-01
-1.611034078661575941e-02 1.316352209665599404e-01 3.644484924519860725e-01
-9.798679160321456874e-03 1.268893543540222935e-01 3.616848728967820836e-01
-1.281167752962042439e-01 6.313277560258667709e-02 1.752917918559602217e-01
-7.417121587253104262e-03 1.249366528120335607e-01 3.591152185971130395e-01
-1.223836806267574878e-01 8.522509079258895615e-02 1.971574563768691557e-01
-1.119383723369841641e-02 1.000460650461200973e-01 3.144284529728740840e-01
-8.956471929282583400e-02 9.922674103129718037e-02 2.207760620593500200e-01
-7.572705184078450114e-02 9.713661907020741670e-02 2.249695153468178055e-01
1.274260280868194095e-01 3.952896598065497313e-01 -1.417234958407537770e-01
-1.840758817407396608e-02 1.207746546112039854e-01 3.445539256869261102e-01
-1.900655409872080773e-02 1.224119821290089588e-01 3.468695329370932168e-01
1.420066930067167277e-01 3.796303075334581112e-01 -1.739681928381713316e-01
-1.849758335978181692e-02 2.064112332574565278e-01 4.503562342986854317e-01
-7.656655835044179348e-02 3.183972236932876287e-02 1.834463367346138019e-01
-3.986214154645990881e-02 1.965004141589446196e-01 4.198691445065283467e-01
-9.756297707690514409e-02 2.397237115537672464e-02 1.700282997794871631e-01
-4.546081094938357603e-02 1.874471170939572828e-01 4.040117064612153697e-01
-3.933727230888506982e-02 1.549754225377560912e-01 3.740133698394186301e-01
-4.067259479734590399e-02 1.535474358432155073e-01 3.702747793436305668e-01
-8.920362867198661228e-03 4.520133288257074250e-02 2.291566226801041717e-01
-4.884508818504067207e-02 1.685539786212132962e-01 3.773521903312415104e-01
-4.624235552096981477e-02 1.498215662716489149e-01 3.578909693120624347e-01
1.176975876500157142e-01 4.343581323258874916e-01 -1.694711378467586016e-01
-4.474905162176410350e-02 4.656153862877074889e-01 4.744465244382795044e-01
1.187218772446162335e-01 4.458539442311483247e-01 -1.925146048697226608e-01
-8.333547556958693925e-02 2.412567392693126811e-01 2.524955993442550284e-01
-1.647027652123916192e-02 -3.954414687508508303e-02 9.218147550873985463e-02
-5.176141885997184722e-02 4.879704855792950657e-01 4.623081772053432847e-01
-5.150363839832189372e-02 4.921355424511983379e-01 4.688465524097221171e-01
1.019162732375919200e-01 4.505396775733138126e-01 -1.460362789756526336e-01
-5.194603284829504147e-02 4.422127695387871871e-01 3.994694028517222217e-01
-5.188073731489527968e-02 4.295217337590739315e-01 3.989088483433151366e-01
-5.514375453356207962e-02 4.297311335853183367e-01 4.087606256968006058e-01
-5.751940650743152250e-02 4.433887197152282522e-01 4.283052796845464028e-01
-5.777775205565182509e-02 4.423404446479215490e-01 4.317256137531617632e-01
-3.295279173044033533e-02 5.647465684639418892e-01 -2.199819081544856780e-01
-1.997777097850451933e-02 5.679252960845448950e-01 -2.104167199754786444e-01
-5.700888866055951743e-02 4.428912015434705585e-01 4.488425236503298943e-01
-6.013248858231943356e-02 4.054608824707642833e-01 4.425079428486899946e-01
-6.002703584605827147e-02 4.051313603511954575e-01 4.387608577667063692e-01
7.535324454080688517e-02 4.784511006281145784e-01 -1.260402146793098976e-01
-5.962276377571590347e-02 4.065911383627738296e-01 4.340489630074552685e-01
-1.171592028548679582e-01 8.155012601221797719e-02 -6.008604971544679874e-01
-1.133998630394009721e-01 8.337609246346272540e-02 -6.030252361654256932e-01
-1.164251006591629778e-01 7.721655067103895542e-02 -6.015351458154456488e-01
6.944803792394535491e-02 4.925282234132833947e-01 -1.325972756772399730e-01
-6.033100790068277736e-02 3.930108413516968380e-01 4.321451203258112050e-01
-6.398575365068757959e-02 3.544736617004108359e-01 4.374858820031667372e-01
-6.215877662661760394e-02 3.601364783266298164e-01 4.206453086932575580e-01
6.399001321840079581e-02 5.036297795047371961e-01 -1.373451076003985860e-01
-7.773431828721130699e-02 1.900331323893372781e-01 -6.041790627915589740e-01
-6.204343413483968950e-02 3.648082600087525496e-01 4.250948048459302075e-01
-6.602453775199652874e-02 3.286030990108667060e-01 4.304735963796441078e-01
6.295676880326567249e-02 5.032749702931735847e-01 -1.351320105895705836e-01
4.985612572110824370e-02 5.283706547925209884e-01 -1.501678694459167851e-01
-6.852051223704022642e-02 3.042651305675413975e-01 4.180981786978215653e-01
6.620228557024294969e-02 5.244166294476835244e-01 -1.722174562625632399e-01
-6.426263609239031560e-02 3.342621865754408783e-01 4.102001898130650526e-01
-6.567634943078318188e-02 3.150058638343855577e-01 3.978048644814504708e-01
-6.483895408069459410e-02 3.300543697430609047e-01 4.093342710752075897e-01
-8.127914435931545001e-02 9.257161475885468394e-02 -6.186507935012692805e-01
6.837488067546709791e-02 5.228819136889581998e-01 -1.737051118409161377e-01
-6.283640877445462181e-02 3.403677915230394202e-01 4.080943310323039697e-01
7.582280351177141109e-02 5.110832999878498484e-01 -1.716387104265469921e-01
-5.823916319694436711e-02 3.651894934635584455e-01 4.013939548085826980e-01
-1.931702580301283834e-02 5.305386802371425681e-01 -3.053167352948255031e-01
-2.266538963207635413e-02 5.420889954948522327e-01 -2.938157190482237890e-01
-5.797118018899125730e-02 3.885034106498377326e-01 4.104759160131179474e-01
-6.036851777586057372e-02 3.579225742757788931e-01 4.078221898695814085e-01
-6.089056325481846665e-02 3.613957339794839907e-01 4.132761827100462915e-01
-1.868045121289461930e-02 4.804146829301274013e-01 -3.430426951073753949e-01
-3.088556146528415383e-02 4.312442974352340697e-01 3.733308787357130787e-01
-3.170919614535300940e-02 4.343830537530197211e-01 3.736766993493321753e-01
-3.532026028517969152e-02 4.148229285681035439e-01 3.770224719562204063e-01
-6.242412606791945817e-02 5.123828886487302725e-01 -2.938252383159639103e-01
-6.239318813316936663e-02 5.170436332814667413e-01 -2.893900148693709928e-01
-4.483007793975574140e-02 4.118733308211611766e-01 3.851807209311588487e-01
-3.830203168551135628e-02 4.072789987814550705e-01 3.787518045332087246e-01
-7.126436231314510483e-02 4.806920083173659708e-01 -3.103786940692412899e-01
-5.057925274416803785e-02 3.742939156580537552e-01 3.870387971034665031e-01
-4.809355579650409496e-02 3.957499102907718891e-01 3.876085166162918094e-01
-9.924242062578612911e-02 4.504648977224662287e-01 -2.928896104634111097e-01
-3.603332769630927801e-02 3.874171912279463781e-01 3.756795277078414097e-01
-3.634841573598304731e-02 3.646168316675668652e-01 3.720810894650632417e-01
1.801482106632023850e-01 3.029363289448576135e-01 -1.340816486714881961e-01
-9.615790882539504425e-02 4.088113410670961012e-01 -3.187781786923091776e-01
-5.105790723628315236e-02 3.477024085393606301e-01 3.807304151237687062e-01
-1.257499634658208187e-01 3.900250469220580829e-01 -2.838034218136755715e-01
-9.567195270388187400e-02 3.952945559468358794e-01 -3.274128231556925339e-01
-1.539025586774857013e-01 3.173366794952729997e-01 -3.005335410111006911e-01
-3.584213886132707472e-02 3.372173993300619510e-01 3.617836782250561378e-01
-1.507409517323841375e-01 3.277420700431145639e-01 -2.958334718430847832e-01
-4.925750909265939198e-02 3.013466738627139097e-01 3.429825466628367847e-01
-5.244124612940259667e-02 3.052458320159768812e-01 3.541959656436679538e-01
-4.354191196830794336e-02 3.109927420052523428e-01 3.478631459290588146e-01
2.051286863483335055e-01 2.494847497536867298e-01 -2.194606618871563219e-01
-6.018748015852654239e-03 5.579218180866630794e-01 3.481799241601691852e-01
-1.779499930647847339e-01 2.431675447932949430e-01 -3.648478664574970054e-01
2.096052386878528850e-01 2.417267151429577376e-01 -1.940163964842874511e-01
-1.324426468448936141e-02 5.373496668461472670e-01 3.530321739221923272e-01
-1.038079723923761473e-02 5.441165739456267358e-01 3.512962071673778608e-01
-2.525298246872192433e-03 5.482967081106766560e-01 3.491638717991572549e-01
2.053737932678956768e-01 2.579748673556008232e-01 -1.790206456870684359e-01
2.044339715104805943e-01 2.442434578580295057e-01 -2.275572040302418497e-01
-1.651322377776411332e-01 2.442087702859591647e-01 -4.949870471022068674e-01
-4.623908315719443829e-02 5.264060849874498960e-01 5.188534259414548933e-01
-4.966652661146751802e-02 5.008285774351424191e-01 4.917462543580602974e-01
-6.297046688318645724e-02 5.115091174149100084e-01 4.961669749251378936e-01
-1.342484598429583287e-01 2.098881449127991405e-01 -5.586167530097621015e-01
-6.681860675836283348e-02 5.248485176215805792e-01 5.048710272522369813e-01
-1.308438483334910252e-01 -6.528235879917780871e-01 -6.242798937145992433e-01
-5.810717898580500945e-02 -6.699695178011255692e-01 -6.450039818945407788e-01
-5.550911575542666343e-02 -6.725575439211095574e-01 -6.373304107877773017e-01
-1.235024197450019894e-02 4.459830434083656980e-01 -3.654046942481235516e-01
-1.140460882220283301e-01 1.575990676471806518e-01 -5.924705420210025775e-01
1.856120060482866763e-01 1.619779110756739138e-01 -2.868050706229756663e-01
-7.166173468011510783e-02 -6.502704993977855841e-01 -6.637424550194261919e-01
-8.568757382917532861e-02 2.070579345631038404e-01 -5.945301970496914556e-01
-8.551999007598148905e-02 2.032428317973794252e-01 -5.959906446850868900e-01
-6.668148065652933221e-02 -6.277752225953361354e-01 -6.670513198792989984e-01
1.772860857682549418e-01 1.575903967609205425e-01 -2.998954316923735375e-01
-6.534640411106046320e-02 -6.159243830425675803e-01 -6.695923428066498095e-01
-5.319256852853407325e-02 -6.492318224618968125e-01 -6.478521504956212818e-01
1.718082869525447420e-01 1.401867968638121631e-01 -3.077837513948302184e-01
-9.818508601765542354e-02 2.812459199174113800e-01 -5.468811638091257699e-01
-5.838823480515431541e-02 -5.972956790025318874e-01 -6.704781996849962233e-01
1.742585971195120542e-01 2.013208366998637533e-01 -3.033618006157895453e-01
-5.910102436724250924e-02 3.006964036147075081e-01 -5.549533751238646673e-01
-5.074764061119639569e-02 -6.405569462999840535e-01 -6.468963503730627007e-01
-4.986931527179973289e-02 -6.222822905459565179e-01 -6.529306339469813647e-01
-4.940915098176719422e-02 2.726672062801285268e-01 -5.857320748600154392e-01
-2.734722446729357520e-02 2.544255443279854756e-01 -6.093876911250852846e-01
-4.523303805666904764e-02 -6.175430235549017599e-01 -6.451314679031707744e-01
-1.098637167287959127e-01 2.792506711870862968e-01 -5.384147646861638936e-01
-1.078218489321812468e-01 2.753755872587709819e-01 -5.437507701642679825e-01
1.880966059462064188e-01 2.305357281572816830e-01 -2.768950192245989150e-01
-4.701756920748655089e-02 -5.474057617484315852e-01 -6.766157675047825837e-01
-5.671060451689532989e-02 -5.683079580767947947e-01 -6.778512215003320573e-01
1.893677466478724813e-01 2.484192451104405286e-01 -2.683078069597773507e-01
-8.691132985496674568e-02 3.287212615789413817e-01 -5.038626093358395952e-01
-4.450860090492878007e-02 -5.373403983997049327e-01 -6.780281171957268649e-01
-1.078301166983908765e-01 2.905981937419159777e-01 -5.304049268792392358e-01
-1.075524133625881951e-01 3.206351971476612550e-01 -4.969887050601611844e-01
-7.016548899030138065e-02 3.080918841576926193e-01 -5.405962725232996702e-01
-4.214977721014109835e-02 -5.156686399446482882e-01 -6.834904066043088200e-01
-4.005624196577783208e-02 -5.270687703413855507e-01 -6.745907186060824401e-01
-9.437074234699231734e-02 3.285574998639776978e-01 -4.974409004473256957e-01
-9.325280046145167923e-02 3.372601981837384799e-01 -4.825439920683466388e-01
1.990945112663911609e-01 2.195093538652928555e-01 -2.573923878522059172e-01
-7.024973667742918926e-02 -6.857544416626943917e-01 -6.367544251817007783e-01
-6.287822187520569761e-02 -6.831485922332667382e-01 -6.276708529850566487e-01
-4.210945535724033850e-02 3.692046446778185498e-01 -4.666866195740425605e-01
-1.109661018515363529e-01 4.284400648650419363e-01 -2.868922770265661115e-01
-5.519661266458530252e-02 -6.733313989153080215e-01 -6.054723811378470710e-01
-9.026257471674906108e-02 5.002656311011060009e-01 -2.652235825969509464e-01
1.545470636198841841e-01 1.243273352689439337e-01 -3.337498240880480971e-01
-5.432590592779552863e-02 -5.259217435568670496e-01 -6.450874882722018588e-01
1.473589018559921804e-01 1.197923455100211032e-01 -3.447542903101518119e-01
-6.428072921584650212e-02 -5.650153942258777651e-01 -6.342351473942807738e-01
-7.087355314094201386e-02 4.131344070994847906e-01 -3.455884349389409804e-01
-6.206095703186815388e-02 -5.645666881211928168e-01 -6.343895918244822907e-01
1.604817342749153553e-01 1.065441053508926761e-01 -3.196534488217598335e-01
-7.043598290718917909e-02 -6.014753631011550139e-01 -6.191905932031509519e-01
-6.799183129985278407e-02 -5.979411879932078344e-01 -6.208604065324057064e-01
1.382523329444769744e-01 8.943892827985228111e-02 -3.489006354865729076e-01
-4.251554540688882999e-02 4.173780214707503156e-01 -3.665227666219034730e-01
-7.072974944487396554e-02 -5.981112608372562978e-01 -6.207052030871699211e-01
-1.203471967847166840e-01 4.377996774643787004e-01 -2.526799351936607207e-01
1.418762041869550405e-01 8.084328319493891413e-02 -3.384795659323047712e-01
-7.463730256958168996e-02 -5.995961536921942114e-01 -6.203305488603884088e-01
1.677941723259259721e-01 9.630229358883735102e-02 -3.038224380375619260e-01
-1.015271326810135433e-01 -6.497963997970815919e-01 -5.979271461738637772e-01
-9.117233837561367071e-02 -6.505748767872959748e-01 -5.952578723852592901e-01
-7.386303517418038589e-02 5.027867795252879413e-01 -1.551594033580876997e-01
-7.531178552927542125e-02 -6.624602815512081744e-01 -5.897242916392564371e-01
-9.227857024425568933e-02 -6.620982530097170304e-01 -5.911980516506732952e-01
-8.077345179930359165e-02 -6.754935643496747799e-01 -5.864916712285401790e-01
-9.746880119872833315e-02 -6.654321402089997672e-01 -5.916278809394874827e-01
1.753636561319965037e-01 8.963638932130937875e-02 -2.857931313498317527e-01
1.709991654158183327e-01 7.414456584036374642e-02 -2.824491902090148221e-01
-7.829414390704408921e-02 5.289097326122617071e-01 -2.474674308412727619e-01
1.882817163489570178e-01 9.908210445518937648e-02 -2.637545410835857584e-01
-1.225016230697602987e-01 -6.801464805421743032e-01 -5.992167430313914966e-01
-5.252117722074077510e-02 5.535634672475893137e-01 -2.252651278255491385e-01
2.050035645840101728e-01 1.294767618740653714e-01 -2.380498323054322518e-01
-4.163836435798788649e-02 5.504718330039034546e-01 -2.688934784064285211e-01
-1.470945250188229921e-02 -3.548538092353268336e-01 -7.047945224130685027e-01
-4.690753161396466267e-03 -3.493675486631574456e-01 -6.875978102697537508e-01
2.077908625372342222e-01 1.373936167811341535e-01 -2.349827676974740043e-01
-8.794805557117285622e-03 -3.505041453149860819e-01 -6.986128382505544243e-01
-1.203169886122313070e-01 4.252167383555058994e-02 -4.039705504167853678e-01
-1.390316562632139263e-02 -3.413315484609507067e-01 -7.053387610295123178e-01
-6.292592029536606124e-02 -1.059681244676304035e-01 -6.442296229413468911e-01
-6.557265742755105653e-02 -9.878482158904340615e-02 -6.417486323558406758e-01
1.947228343195201994e-01 1.248140509870703796e-01 -2.636389504576796550e-01
-6.136019471529761959e-02 -8.674103600639307410e-02 -6.388987668535353048e-01
-5.700253172785186423e-02 -9.753045755650870119e-02 -6.425560631338051998e-01
1.929517387436764375e-01 1.506166347771934755e-01 -2.743063933379225605e-01
-1.137631234331572816e-01 -1.615292363597540526e-01 -5.628428608804898481e-01
-5.905833001336529414e-02 -1.431991275165229727e-01 -6.567059015551164336e-01
2.081738467442869056e-01 1.478981837355604345e-01 -2.384106288902703430e-01
-4.476967073412155967e-02 -1.117241707991035726e-01 -6.459287739293859687e-01
-5.952910795093447477e-02 -1.729715681569001240e-01 -6.670301290078789469e-01
-4.527185796127976281e-02 -1.892528651209621215e-01 -6.732037179187397857e-01
-1.533922577425491651e-01 -4.438740762881303314e-02 -4.687621372085714611e-01
2.154476688759302816e-01 1.730271748405086962e-01 -2.159441162176492235e-01
2.156834471892368488e-01 1.821745630384908887e-01 -2.149956755681804443e-01
5.413274991087185101e-02 -3.517204960904698474e-01 2.727476903148726151e-02
-4.950797279354220148e-02 -2.142289769766538288e-01 -6.833715881949911086e-01
2.174122671552376485e-01 1.957449098934178067e-01 -1.926110901903155537e-01
2.165059285799753042e-01 2.040906200001000037e-01 -1.919560473861657290e-01
8.796250077626006914e-02 -1.868590888899735181e-01 7.715207870224805031e-02
7.007343705818901147e-02 -1.559256087971247484e-01 8.978646049323246725e-02
-4.282847377577336800e-02 -2.827720957286187220e-01 -7.158168581241994843e-01
7.333915748732054707e-02 -1.134374804510291934e-01 1.046450801891138649e-01
8.581275024621369540e-02 -9.677065830486836218e-02 1.114859520168631768e-01
-3.188562053420634923e-02 -5.672706367874748024e-01 3.020090178053712326e-02
8.397525400671895790e-02 -8.862750476257130750e-02 1.135973492152620584e-01
2.130932238601902229e-01 2.259224370597860965e-01 -1.470636642715034970e-01
-1.836750384788930768e-02 -3.113379797141884731e-01 -7.292210748991743152e-01
-3.704511235904924676e-02 -6.119509585941432794e-01 4.916328614589389467e-02
-4.315833713072231986e-02 -6.144763485718407470e-01 5.325328455882158418e-02
9.622275594763154971e-02 -3.713332784717758572e-02 1.258942102861107248e-01
6.667961801814215050e-02 -2.314818179690076860e-01 6.346861824201710522e-02
-4.179681673790634072e-02 -6.573553850379776353e-01 6.987542297141062508e-02
4.224726274587219110e-02 -4.658538696202660367e-02 2.118671820278059115e-02
4.189716810193875457e-02 -6.413857867701497351e-02 3.604746203614059979e-02
-4.237052537312085976e-02 -1.881734137982850885e-01 5.754723576964786147e-02
-4.084776947282935805e-02 -2.180755511061360508e-01 4.720473939269325542e-02
6.381296095907137977e-02 6.075316367242727944e-01 3.882230917062740594e-01
1.981921420038300352e-02 6.161748787304669461e-01 5.840162053738534587e-01
1.946387140903264590e-01 2.778249445810447860e-01 -1.384846826995016211e-01
2.454199927203978143e-02 6.107204568833278779e-01 6.196601963097861931e-01
1.970632059720864582e-01 2.741324242770948327e-01 -1.476928238545524019e-01
2.019575534214702595e-01 2.645383937559684373e-01 -1.563202153761194535e-01
7.586002826695047163e-02 5.891477772145486957e-01 4.831186757923966457e-01
-3.818439657635856743e-02 -2.225665554567147209e-01 2.926336090969312159e-02
1.881770168117407882e-01 2.825346589835775468e-01 -1.117863479928275922e-01
-4.258273553734866906e-02 -1.355465841126622661e-01 7.223492201104697585e-02
-4.327761078994810801e-02 -1.225397065259383467e-01 7.328397788425861092e-02
-2.261321800252112657e-02 6.501127587722742573e-01 5.146766388306346363e-01
-4.125748299778733003e-02 -1.269855365121608237e-01 6.496863543390746232e-02
-4.118555751887336552e-02 -1.227486474074829942e-01 6.169417036245125607e-02
6.785088486536644189e-03 6.541352964309143925e-01 5.095645798917447511e-01
-4.365993637873086947e-02 -9.535116889922981565e-02 7.213102993770695304e-02
5.294564998664694905e-02 6.408325780467937216e-01 5.098009755468323467e-01
-4.297102661569122961e-02 -1.016669144154046384e-01 5.584276454429325937e-02
-4.714284436897167585e-02 -8.638249993920005254e-02 8.514995876995952451e-02
1.673665100703511932e-01 3.121464469822071708e-01 -1.042725635373566023e-01
-4.042550136285704560e-02 -1.280342853673053782e-01 5.713695486681753810e-02
-4.288790233695016080e-02 -8.855098102592401377e-02 5.213470004307870637e-02
6.040555912576986430e-02 6.053546633153685796e-01 5.237616629517841682e-01
-4.272522233428609206e-02 -9.819502151949814628e-02 4.520860007784080481e-02
-4.570974642658617859e-02 -1.036682362884369379e-01 3.156293389042246628e-02
-1.574097437217474721e-02 6.441307828779180289e-01 3.837140429642768025e-01
-1.331323458342472538e-02 6.476304962305767798e-01 4.116888053223343169e-01
-4.922106831177876923e-02 -1.019706637514952163e-01 2.548753803092788928e-02
-4.906328401236179082e-02 -1.129396002969273727e-01 2.184627795975285780e-02
-1.974244795774770384e-02 6.507841339589037766e-01 4.680247357190168711e-01
1.351934620944406362e-01 3.346120961366632063e-01 -6.408356576936506677e-02
-2.010161373621777072e-03 6.531368636299894614e-01 4.863741865574837120e-01
-1.053912508737040246e-02 6.501489767201270586e-01 4.429313730186815179e-01
1.532929258890114096e-02 6.497077275927252149e-01 4.409482042316597017e-01
-5.559822104434252593e-02 -1.622466218335654742e-01 8.460270801459940718e-04
-4.831714859885280489e-02 -1.518417349005572459e-01 1.090722584939099113e-02
-7.063835764688862484e-02 -8.299266428770116222e-02 1.151249534318479241e-02
-4.563418489128302780e-02 6.416602222878498019e-01 4.164757875836976320e-01
-6.461930391636037940e-02 -9.648100967639680614e-02 1.064676718318718560e-02
-3.717694114063271882e-02 6.378314323684999287e-01 3.867177806642378424e-01
-6.239980137064867621e-02 6.336502514964571509e-01 4.198255004266013279e-01
-1.619591260493121604e-02 -4.458274627948000668e-01 -1.556369776399147906e-02
5.753310670031182988e-02 6.388941426256554701e-01 4.274582166332205890e-01
1.142443752172412896e-01 3.823892775956979628e-01 -8.638765839039216909e-02
-1.765118710129839549e-02 -4.497446793886102911e-01 -1.506260892493333989e-02
-2.157523119053859212e-02 -4.669147339065520819e-01 -1.436316068516167201e-02
4.621400355951300193e-02 6.339030257320616979e-01 3.884832560248093758e-01
1.300970167726290538e-01 3.619291395022494195e-01 -9.438414760868679698e-02
-2.289774821684861447e-02 -4.811587278659533728e-01 -1.126480926712570760e-02
9.694101741526442786e-03 6.225174308299765702e-01 5.931233260145333253e-01
-2.674517827068679035e-02 -5.456845683486708509e-01 9.407143441198573958e-03
-3.274134148672133010e-02 -5.826477041341729946e-01 1.010509448292963401e-02
-3.227001096322142104e-02 -6.038439455523395560e-01 1.907754709817642905e-02
-3.474445716796457917e-02 -6.166876305740562891e-01 1.966980350462900484e-02
1.448702886371665832e-01 3.516742599968976091e-01 -1.154776191580976635e-01
-3.542608926637691447e-02 -6.305601804962379653e-01 2.362058236604681893e-02
4.976213721766283016e-02 6.146880911969241357e-01 3.510098655872140871e-01
-4.029705496347810167e-02 -6.582585039858842579e-01 2.460020790874925534e-02
-3.275033920205992766e-02 -6.561474901206409971e-01 4.213174983563722220e-02
2.139722804078931506e-01 2.143411392415326966e-01 -1.336872303741757084e-01
-3.446091649157606573e-02 -5.548704552389643885e-01 -2.293374958950014815e-03
-6.926383713359209743e-04 5.780960973575669515e-01 3.450088784878819759e-01
-3.826600254069969370e-02 -5.616569353498400696e-01 -3.385003354983112493e-03
2.183046842249073416e-01 1.787348324407230238e-01 -1.636294202996256830e-01
-5.501559311954810211e-02 -6.306791186713867070e-01 4.671983662326777836e-03
-5.213151051772125372e-02 -6.660004783822999208e-01 1.395539669132331295e-02
-5.650778391520519528e-02 -6.776129636852268323e-01 1.621137124108787755e-02
-1.070196819298163127e-01 -6.928819179190284228e-01 4.033229635344708075e-02
5.054158162294632162e-02 3.446589658784497967e-01 3.784193882164419431e-01
-4.480928803960728540e-02 3.752501980947020588e-01 -4.447112898146236559e-01
-1.007896475673417114e-01 -6.176821506688352503e-01 1.995233304666932383e-02
-1.128488491155076323e-01 -6.672019627398578789e-01 2.318509300618007765e-02
-1.187171488584320422e-01 -6.661633189732734106e-01 3.268411655213472600e-02
-2.612260041801948290e-02 3.917622384179959005e-01 -4.221279187122798371e-01
-5.655524612636954329e-02 -4.141164339273545325e-01 2.669148739293352238e-02
-5.868232125192567039e-02 -3.913043258078470199e-01 2.740415306835739667e-02
5.234407145923475335e-02 3.550754817999762225e-01 4.772230151330731363e-01
-5.805489552411556564e-02 -3.015821900006834810e-01 4.268639019428943637e-02
-5.896538222309448407e-02 -2.654824954434853446e-01 5.324198201669854552e-02
-5.778037345183280327e-02 -2.670923894175406543e-01 5.266487757595642721e-02
-7.301883478642852421e-02 -2.140981954985282654e-01 6.876168883964567380e-02
-7.339212959693316995e-02 -2.252770591403637779e-01 6.476070044228376954e-02
-6.777377646839806424e-02 -2.107247975915386429e-01 7.006406627847690249e-02
-2.028191897257886067e-02 4.047324309979917212e-01 -3.988576085397917415e-01
-5.968093976850115390e-02 -2.119313963838675707e-01 6.821671390725290995e-02
1.263434534544377041e-01 -6.318072951641593438e-01 -6.401027213876611111e-01
-7.333885576780216353e-02 -2.039744920513968940e-01 7.235143535044760710e-02
1.268918354744864030e-01 -6.702218163315356581e-01 -6.454996620008657260e-01
-7.821322342465511501e-02 -1.765322181204950491e-01 8.241678986351522185e-02
-7.292945850352484938e-02 -1.828503975252588343e-01 8.011028170888787048e-02
-6.606910131922619223e-02 -1.575613448542941275e-01 8.805720698880251107e-02
7.401939516067308766e-02 -4.546781029282413455e-01 -6.674837899001486718e-01
-7.286662015270727044e-02 3.631299478669149372e-01 -4.429896841242437766e-01
-4.697848222165226795e-02 4.085494992411254911e-01 -3.713938237615774796e-01
-8.580804252961682366e-02 -1.147213844208989919e-01 1.061537214605385859e-01
6.978564742430974632e-02 -4.598589591836550472e-01 -6.588845629724904285e-01
1.651753428600072002e-02 -3.466178491506512471e-01 -7.081506676754243390e-01
1.857555965898517736e-02 -3.995681471088706749e-01 -6.880740359797803407e-01
-7.399449284483008982e-02 3.891555620058655962e-01 -3.658533355419809618e-01
-8.746987783516187165e-02 -6.354719426401272964e-02 1.205271850898511632e-01
4.942171385778116460e-02 -4.751734327360150334e-01 -6.997660116575217248e-01
-7.788705669316414726e-02 -5.509408698969177343e-02 1.206105081711849880e-01
-7.106256464316583477e-02 -3.188477437645113877e-02 1.256736614384811324e-01
-8.520755926851129869e-02 3.772386096855985804e-01 -3.686666845972386142e-01
-1.027289828724106124e-01 -1.345273509111535037e-01 9.534719031707708514e-02
-1.143105668227211436e-01 -1.380551204302097601e-01 8.707735799840514435e-02
-1.050766578464584211e-01 3.624237635406406532e-01 -3.588427568833479353e-01
-9.438662291851114550e-02 -1.690632837067295169e-01 8.302861365121289028e-02
-1.096804982506529719e-01 3.559121254783608745e-01 -3.728824298859101938e-01
-1.127228076590962302e-01 3.630663561178365528e-01 -3.340897122956394405e-01
4.881818483927023028e-02 -4.290327106682328973e-01 -6.553576317776679261e-01
-1.104030979001605350e-01 -1.597058163808087183e-01 7.898834005122318258e-02
-9.249331589450429658e-02 -1.864239262978382716e-01 7.603755619733311433e-02
-8.469672353374417539e-02 -1.963407803858799316e-01 7.417045944852058981e-02
-1.254705370207053472e-01 3.447092933348522292e-01 -3.480077067273568137e-01
-8.425721683952079599e-02 -2.642819332090484696e-01 4.417344654154971295e-02
3.593267135271568241e-02 -6.179041168566891118e-01 1.815553187868410717e-02
4.165869816782956370e-02 -5.689427880857973463e-01 -3.253982285843150246e-03
2.835920365237398766e-02 -5.422148235137866923e-01 2.820011794170761144e-03
3.016546604827393882e-02 -5.862549597350898978e-01 1.820887227422500129e-02
-8.209498976416880478e-02 2.248053520457587440e-01 2.766721572360202885e-01
-8.253867962134073255e-02 2.251683544945654036e-01 2.699459798370121844e-01
1.193982957856460844e-02 -2.862056706383739671e-02 1.492243820838447255e-01
5.333591330851170792e-02 4.761797697665388629e-01 4.541574103042012034e-01
-8.304518180485198631e-02 2.181501304016806309e-01 2.906447830828394752e-01
-7.739228247602156219e-02 2.446211371229070064e-01 3.134207330983628803e-01
-7.147364879734943721e-02 2.568035671520523255e-01 3.094311898931327298e-01
-1.096095146790401070e-01 3.538070021394917886e-01 -3.839293510897286987e-01
-7.704321355926085912e-02 2.491232467972444020e-01 3.330306076164154527e-01
3.065954877457249816e-02 4.552296454781169510e-01 3.705971097990070073e-01
-6.427734282507734098e-02 2.913054587958160968e-01 3.596232861734408592e-01
-1.201152638095521613e-01 3.410415560431951931e-01 -4.118935668208106859e-01
-6.716749057665763467e-02 2.818683421983190218e-01 3.529500956729316741e-01
-1.403416486696782428e-01 3.229868854708221049e-01 -3.987467345622827120e-01
3.011581843247520748e-02 3.986195543061653579e-01 3.730719603579329413e-01
-1.385576569331535279e-01 3.246586868177254726e-01 -4.014099185408941395e-01
-7.803040725718767001e-02 2.451514722033068527e-01 3.370385099427409825e-01
7.421399297171935028e-02 9.132495674274286601e-02 2.215770795756690503e-01
-9.662008214884529322e-02 1.979793270797793603e-01 2.464712556312821101e-01
-9.210370478211345191e-02 1.923039544355341635e-01 2.513999327043831000e-01
-8.503021814562734815e-02 1.890973867673622355e-01 2.851843384949012683e-01
